ply
format ascii 1.0
comment Created by Open3D
element vertex 3133
property double x
property double y
property double z
end_header
90 131 17.9563
91 131 16.1384
92 131 12.1188
93 131 4.75519
94 131 -30.2219
95 131 -30.2219
96 131 -30.2219
97 131 -30.2219
98 131 -30.2219
99 131 -30.2219
100 131 -30.2219
101 131 -30.2219
102 131 -30.2219
103 131 -30.2219
104 131 -30.2219
105 131 -30.2219
106 131 -30.2219
107 131 -30.2219
108 131 -30.2219
109 131 -30.2219
110 131 -30.2219
111 131 -30.2219
112 131 -30.2219
113 131 -30.2219
114 131 -30.2219
115 131 -30.2219
116 131 -30.2219
117 131 -30.2219
118 131 -30.2219
119 131 -30.2219
0 132 -30.2219
1 132 -30.2219
2 132 -30.2219
3 132 -30.2219
4 132 -30.2219
5 132 -30.2219
6 132 -30.2219
7 132 -30.2219
8 132 -30.2219
9 132 -30.2219
10 132 -30.2219
11 132 -30.2219
12 132 -30.2219
13 132 -30.2219
14 132 -30.2219
15 132 -30.2219
16 132 -30.2219
17 132 -30.2219
18 132 -30.2219
19 132 -30.2219
20 132 -30.2219
21 132 -30.2219
22 132 13.8173
23 132 16.6724
24 132 17.8805
25 132 18.6747
26 132 18.728
27 132 18.9733
28 132 19.4277
29 132 19.9278
30 132 20.5013
31 132 21.5022
32 132 23.3227
33 132 25.4898
34 132 27.4692
35 132 29.006
36 132 30.0301
37 132 30.8707
38 132 31.547
39 132 32.0338
40 132 32.3005
41 132 32.3781
42 132 32.3732
43 132 32.2941
44 132 32.1698
45 132 32.0115
46 132 31.8249
47 132 31.6256
48 132 31.4154
49 132 31.2132
50 132 31.0058
51 132 30.806
52 132 30.5972
53 132 30.3469
54 132 30.0273
55 132 29.682
56 132 29.3342
57 132 28.9904
58 132 28.6484
59 132 28.309
60 132 27.9411
61 132 27.5601
62 132 27.2176
63 132 26.9797
64 132 26.8459
65 132 26.814
66 132 26.867
67 132 26.9728
68 132 27.0741
69 132 27.1555
70 132 27.2299
71 132 27.2803
72 132 27.2828
73 132 27.2431
74 132 27.1468
75 132 27.017
76 132 26.8461
77 132 26.6468
78 132 26.4396
79 132 26.2191
80 132 25.9799
81 132 25.7163
82 132 25.4024
83 132 25.0181
84 132 24.5681
85 132 24.026
86 132 23.4068
87 132 22.6755
88 132 21.8017
89 132 20.557
90 132 18.8043
91 132 16.9517
92 132 12.9431
93 132 5.64434
94 132 -30.2219
95 132 -30.2219
96 132 -30.2219
97 132 -30.2219
98 132 -30.2219
99 132 -30.2219
100 132 -30.2219
101 132 -30.2219
102 132 -30.2219
103 132 -30.2219
104 132 -30.2219
105 132 -30.2219
106 132 -30.2219
107 132 -30.2219
108 132 -30.2219
109 132 -30.2219
110 132 -30.2219
111 132 -30.2219
112 132 -30.2219
113 132 -30.2219
114 132 -30.2219
115 132 -30.2219
116 132 -30.2219
117 132 -30.2219
118 132 -30.2219
119 132 -30.2219
0 133 -30.2219
1 133 -30.2219
2 133 -30.2219
3 133 -30.2219
4 133 -30.2219
5 133 -30.2219
6 133 -30.2219
7 133 -30.2219
8 133 -30.2219
9 133 -30.2219
10 133 -30.2219
11 133 -30.2219
12 133 -30.2219
13 133 -30.2219
14 133 -30.2219
15 133 -30.2219
16 133 -30.2219
17 133 -30.2219
18 133 -30.2219
19 133 -30.2219
20 133 -30.2219
21 133 15.0895
22 133 17.5573
23 133 19.3825
24 133 20.4772
25 133 21.3053
26 133 21.6793
27 133 22.0714
28 133 22.4418
29 133 22.646
30 133 22.8771
31 133 23.4702
32 133 24.7674
33 133 26.4267
34 133 28.0578
35 133 29.2975
36 133 30.1504
37 133 30.835
38 133 31.3957
39 133 31.7966
40 133 32.0052
41 133 32.0481
42 133 32.0247
43 133 31.9313
44 133 31.7834
45 133 31.604
46 133 31.3968
47 133 31.1651
48 133 30.9148
49 133 30.6755
50 133 30.4514
51 133 30.2406
52 133 30.0264
53 133 29.7693
54 133 29.4488
55 133 29.0865
56 133 28.7188
57 133 28.3688
58 133 28.0268
59 133 27.7002
60 133 27.3609
61 133 27.014
62 133 26.699
63 133 26.4968
64 133 26.4111
65 133 26.4432
66 133 26.5667
67 133 26.74
68 133 26.9195
69 133 27.0861
70 133 27.2476
71 133 27.384
72 133 27.4726
73 133 27.5017
74 133 27.4639
75 133 27.3764
76 133 27.2443
77 133 27.0884
78 133 26.9218
79 133 26.7414
80 133 26.5365
81 133 26.3025
82 133 26.015
83 133 25.647
84 133 25.1899
85 133 24.6435
86 133 24.0214
87 133 23.3068
88 133 22.493
89 133 21.4401
90 133 19.8714
91 133 17.833
92 133 13.8317
93 133 6.38906
94 133 -30.2219
95 133 -30.2219
96 133 -30.2219
97 133 -30.2219
98 133 -30.2219
99 133 -30.2219
100 133 -30.2219
101 133 -30.2219
102 133 -30.2219
103 133 -30.2219
104 133 -30.2219
105 133 -30.2219
106 133 -30.2219
107 133 -30.2219
108 133 -30.2219
109 133 -30.2219
110 133 -30.2219
111 133 -30.2219
112 133 -30.2219
113 133 -30.2219
114 133 -30.2219
115 133 -30.2219
116 133 -30.2219
117 133 -30.2219
118 133 -30.2219
119 133 -30.2219
0 134 -30.2219
1 134 -30.2219
2 134 -30.2219
3 134 -30.2219
4 134 -30.2219
5 134 -30.2219
6 134 -30.2219
7 134 -30.2219
8 134 -30.2219
9 134 -30.2219
10 134 -30.2219
11 134 -30.2219
12 134 -30.2219
13 134 -30.2219
14 134 -30.2219
15 134 -30.2219
16 134 -30.2219
17 134 -30.2219
18 134 -30.2219
19 134 -30.2219
20 134 -30.2219
21 134 17.0455
22 134 20.0034
23 134 22.0302
24 134 23.3418
25 134 24.2096
26 134 24.6796
27 134 24.988
28 134 25.1492
29 134 25.08
30 134 24.9985
31 134 25.2741
32 134 26.0683
33 134 27.2102
34 134 28.5191
35 134 29.5558
36 134 30.2796
37 134 30.8279
38 134 31.2659
39 134 31.5701
40 134 31.71
41 134 31.7294
42 134 31.6857
43 134 31.5754
44 134 31.4069
45 134 31.2024
46 134 30.978
47 134 30.7242
48 134 30.448
49 134 30.1682
50 134 29.9124
51 134 29.6781
52 134 29.4477
53 134 29.1861
54 134 28.8652
55 134 28.4879
56 134 28.1121
57 134 27.7563
58 134 27.4158
59 134 27.0962
60 134 26.7829
61 134 26.4594
62 134 26.1785
63 134 26.0121
64 134 25.9732
65 134 26.0576
66 134 26.233
67 134 26.4529
68 134 26.6927
69 134 26.9249
70 134 27.1508
71 134 27.3587
72 134 27.5147
73 134 27.6038
74 134 27.6332
75 134 27.5999
76 134 27.519
77 134 27.4111
78 134 27.2922
79 134 27.1678
80 134 27.0128
81 134 26.8205
82 134 26.5697
83 134 26.2464
84 134 25.8174
85 134 25.2755
86 134 24.6365
87 134 23.9195
88 134 23.1328
89 134 22.1888
90 134 20.8434
91 134 18.6793
92 134 14.5833
93 134 7.08573
94 134 -30.2219
95 134 -30.2219
96 134 -30.2219
97 134 -30.2219
98 134 -30.2219
99 134 -30.2219
100 134 -30.2219
101 134 -30.2219
102 134 -30.2219
103 134 -30.2219
104 134 -30.2219
105 134 -30.2219
106 134 -30.2219
107 134 -30.2219
108 134 -30.2219
109 134 -30.2219
110 134 -30.2219
111 134 -30.2219
112 134 -30.2219
113 134 -30.2219
114 134 -30.2219
115 134 -30.2219
116 134 -30.2219
117 134 -30.2219
118 134 -30.2219
119 134 -30.2219
0 135 -30.2219
1 135 -30.2219
2 135 -30.2219
3 135 -30.2219
4 135 -30.2219
5 135 -30.2219
6 135 -30.2219
7 135 -30.2219
8 135 -30.2219
9 135 -30.2219
10 135 -30.2219
11 135 -30.2219
12 135 -30.2219
13 135 -30.2219
14 135 -30.2219
15 135 -30.2219
16 135 -30.2219
17 135 -30.2219
18 135 -30.2219
19 135 -30.2219
20 135 20.7018
21 135 21.3051
22 135 23.5506
23 135 25.2558
24 135 26.3686
25 135 27.0438
26 135 27.3842
27 135 27.5193
28 135 27.4508
29 135 27.1499
30 135 26.8368
31 135 26.8618
32 135 27.2385
33 135 27.9218
34 135 28.8886
35 135 29.7756
36 135 30.3872
37 135 30.826
38 135 31.1549
39 135 31.3684
40 135 31.4481
41 135 31.4313
42 135 31.37
43 135 31.2347
44 135 31.0414
45 135 30.8136
46 135 30.5684
47 135 30.2988
48 135 30.0075
49 135 29.7027
50 135 29.4107
51 135 29.1423
52 135 28.8782
53 135 28.6061
54 135 28.2887
55 135 27.9066
56 135 27.5213
57 135 27.1609
58 135 26.8292
59 135 26.5207
60 135 26.2356
61 135 25.9397
62 135 25.6897
63 135 25.5534
64 135 25.5521
65 135 25.6735
66 135 25.8822
67 135 26.1297
68 135 26.4036
69 135 26.6772
70 135 26.9527
71 135 27.2144
72 135 27.4302
73 135 27.5832
74 135 27.678
75 135 27.7129
76 135 27.7017
77 135 27.6571
78 135 27.6002
79 135 27.5294
80 135 27.4289
81 135 27.2823
82 135 27.0748
83 135 26.7998
84 135 26.427
85 135 25.9141
86 135 25.2762
87 135 24.5574
88 135 23.7812
89 135 22.8838
90 135 21.6659
91 135 19.586
92 135 15.3647
93 135 7.96871
94 135 -30.2219
95 135 -30.2219
96 135 -30.2219
97 135 -30.2219
98 135 -30.2219
99 135 -30.2219
100 135 -30.2219
101 135 -30.2219
102 135 -30.2219
103 135 -30.2219
104 135 -30.2219
105 135 -30.2219
106 135 -30.2219
107 135 -30.2219
108 135 -30.2219
109 135 -30.2219
110 135 -30.2219
111 135 -30.2219
112 135 -30.2219
113 135 -30.2219
114 135 -30.2219
115 135 -30.2219
116 135 -30.2219
117 135 -30.2219
118 135 -30.2219
119 135 -30.2219
0 136 -30.2219
1 136 -30.2219
2 136 -30.2219
3 136 -30.2219
4 136 -30.2219
5 136 -30.2219
6 136 -30.2219
7 136 -30.2219
8 136 -30.2219
9 136 -30.2219
10 136 -30.2219
11 136 -30.2219
12 136 -30.2219
13 136 -30.2219
14 136 -30.2219
15 136 -30.2219
16 136 -30.2219
17 136 -30.2219
18 136 -30.2219
19 136 23.4873
20 136 24.3874
21 136 25.2498
22 136 26.9646
23 136 28.2559
24 136 29.0519
25 136 29.4862
26 136 29.6514
27 136 29.6186
28 136 29.3698
29 136 28.8934
30 136 28.4144
31 136 28.2182
32 136 28.2553
33 136 28.5893
34 136 29.2669
35 136 29.9697
36 136 30.4654
37 136 30.8122
38 136 31.0503
39 136 31.1958
40 136 31.2218
41 136 31.1639
42 136 31.0671
43 136 30.9013
44 136 30.6858
45 136 30.4377
46 136 30.173
47 136 29.8888
48 136 29.5911
49 136 29.2649
50 136 28.9445
51 136 28.6383
52 136 28.3305
53 136 28.0307
54 136 27.712
55 136 27.3417
56 136 26.9495
57 136 26.5869
58 136 26.2693
59 136 25.9796
60 136 25.7193
61 136 25.4646
62 136 25.2376
63 136 25.1272
64 136 25.1596
65 136 25.3091
66 136 25.5302
67 136 25.7896
68 136 26.0761
69 136 26.3697
70 136 26.6712
71 136 26.9694
72 136 27.234
73 136 27.4502
74 136 27.6121
75 136 27.7214
76 136 27.7837
77 136 27.8162
78 136 27.8375
79 136 27.8308
80 136 27.7869
81 136 27.6901
82 136 27.5267
83 136 27.3045
84 136 26.9852
85 136 26.523
86 136 25.9074
87 136 25.1925
88 136 24.4175
89 136 23.522
90 136 22.3339
91 136 20.3795
92 136 15.9006
93 136 8.32733
94 136 -30.2219
95 136 -30.2219
96 136 -30.2219
97 136 -30.2219
98 136 -30.2219
99 136 -30.2219
100 136 -30.2219
101 136 -30.2219
102 136 -30.2219
103 136 -30.2219
104 136 -30.2219
105 136 -30.2219
106 136 -30.2219
107 136 -30.2219
108 136 -30.2219
109 136 -30.2219
110 136 -30.2219
111 136 -30.2219
112 136 -30.2219
113 136 -30.2219
114 136 -30.2219
115 136 -30.2219
116 136 -30.2219
117 136 -30.2219
118 136 -30.2219
119 136 -30.2219
0 137 -30.2219
1 137 -30.2219
2 137 -30.2219
3 137 -30.2219
4 137 -30.2219
5 137 -30.2219
6 137 -30.2219
7 137 -30.2219
8 137 -30.2219
9 137 -30.2219
10 137 -30.2219
11 137 -30.2219
12 137 -30.2219
13 137 -30.2219
14 137 -30.2219
15 137 -30.2219
16 137 -30.2219
17 137 25.0084
18 137 26.6297
19 137 27.2164
20 137 27.9903
21 137 28.9245
22 137 30.1395
23 137 30.9739
24 137 31.424
25 137 31.6248
26 137 31.6198
27 137 31.4065
28 137 30.9881
29 137 30.3841
30 137 29.7731
31 137 29.3766
32 137 29.1709
33 137 29.2658
34 137 29.7093
35 137 30.2035
36 137 30.5534
37 137 30.7971
38 137 30.9431
39 137 31.034
40 137 31.032
41 137 30.9412
42 137 30.795
43 137 30.5986
44 137 30.3536
45 137 30.0829
46 137 29.7996
47 137 29.5009
48 137 29.1849
49 137 28.8424
50 137 28.4982
51 137 28.1609
52 137 27.8193
53 137 27.4788
54 137 27.1472
55 137 26.7881
56 137 26.4054
57 137 26.051
58 137 25.7488
59 137 25.4777
60 137 25.2381
61 137 25.0175
62 137 24.8156
63 137 24.725
64 137 24.7803
65 137 24.9493
66 137 25.1694
67 137 25.4273
68 137 25.7185
69 137 26.0179
70 137 26.3227
71 137 26.6407
72 137 26.9421
73 137 27.2131
74 137 27.4439
75 137 27.6312
76 137 27.7774
77 137 27.8984
78 137 27.9974
79 137 28.0583
80 137 28.0778
81 137 28.0407
82 137 27.9217
83 137 27.7374
84 137 27.4597
85 137 27.0539
86 137 26.4662
87 137 25.7317
88 137 24.9049
89 137 23.9117
90 137 22.5084
91 137 20.2177
92 137 14.8039
93 137 -30.2219
94 137 -30.2219
95 137 -30.2219
96 137 -30.2219
97 137 -30.2219
98 137 -30.2219
99 137 -30.2219
100 137 -30.2219
101 137 -30.2219
102 137 -30.2219
103 137 -30.2219
104 137 -30.2219
105 137 -30.2219
106 137 -30.2219
107 137 -30.2219
108 137 -30.2219
109 137 -30.2219
110 137 -30.2219
111 137 -30.2219
112 137 -30.2219
113 137 -30.2219
114 137 -30.2219
115 137 -30.2219
116 137 -30.2219
117 137 -30.2219
118 137 -30.2219
119 137 -30.2219
0 138 -30.2219
1 138 -30.2219
2 138 -30.2219
3 138 -30.2219
4 138 -30.2219
5 138 -30.2219
6 138 -30.2219
7 138 -30.2219
8 138 -30.2219
9 138 -30.2219
10 138 -30.2219
11 138 -30.2219
12 138 -30.2219
13 138 -30.2219
14 138 -30.2219
15 138 -30.2219
16 138 26.0824
17 138 27.838
18 138 29.2625
19 138 30.3358
20 138 31.386
21 138 32.2767
22 138 33.0646
23 138 33.5051
24 138 33.6696
25 138 33.6287
26 138 33.4038
27 138 32.996
28 138 32.4176
29 138 31.7193
30 138 31.0266
31 138 30.4768
32 138 30.1037
33 138 30.0197
34 138 30.2396
35 138 30.5053
36 138 30.697
37 138 30.8225
38 138 30.884
39 138 30.9204
40 138 30.8822
41 138 30.7622
42 138 30.5726
43 138 30.3414
44 138 30.0589
45 138 29.7617
46 138 29.4642
47 138 29.1556
48 138 28.8188
49 138 28.4567
50 138 28.0804
51 138 27.7097
52 138 27.3399
53 138 26.9753
54 138 26.6183
55 138 26.2652
56 138 25.9068
57 138 25.5643
58 138 25.2742
59 138 25.026
60 138 24.805
61 138 24.601
62 138 24.4229
63 138 24.3555
64 138 24.4211
65 138 24.5793
66 138 24.7958
67 138 25.0475
68 138 25.3304
69 138 25.6251
70 138 25.9262
71 138 26.2563
72 138 26.5888
73 138 26.9067
74 138 27.2022
75 138 27.4668
76 138 27.6972
77 138 27.8917
78 138 28.0456
79 138 28.1586
80 138 28.2327
81 138 28.2571
82 138 28.1962
83 138 28.036
84 138 27.7675
85 138 27.3519
86 138 26.7554
87 138 25.9682
88 138 25.0636
89 138 23.9868
90 138 22.5185
91 138 20.4615
92 138 16.5411
93 138 8.00083
94 138 2.97802
95 138 -30.2219
96 138 -30.2219
97 138 -30.2219
98 138 -30.2219
99 138 -30.2219
100 138 -30.2219
101 138 -30.2219
102 138 -30.2219
103 138 -30.2219
104 138 -30.2219
105 138 -30.2219
106 138 -30.2219
107 138 -30.2219
108 138 -30.2219
109 138 -30.2219
110 138 -30.2219
111 138 -30.2219
112 138 -30.2219
113 138 -30.2219
114 138 -30.2219
115 138 -30.2219
116 138 -30.2219
117 138 -30.2219
118 138 -30.2219
119 138 -30.2219
0 139 -30.2219
1 139 -30.2219
2 139 -30.2219
3 139 -30.2219
4 139 -30.2219
5 139 -30.2219
6 139 -30.2219
7 139 -30.2219
8 139 -30.2219
9 139 -30.2219
10 139 -30.2219
11 139 -30.2219
12 139 -30.2219
13 139 -30.2219
14 139 -30.2219
15 139 26.6758
16 139 28.7085
17 139 30.4497
18 139 32.1139
19 139 33.4957
20 139 34.5978
21 139 35.3417
22 139 35.8058
23 139 35.9372
24 139 35.8466
25 139 35.5612
26 139 35.1069
27 139 34.4946
28 139 33.7498
29 139 32.9766
30 139 32.2594
31 139 31.6107
32 139 31.0974
33 139 30.8432
34 139 30.8459
35 139 30.8879
36 139 30.9033
37 139 30.8963
38 139 30.8723
39 139 30.8405
40 139 30.7637
41 139 30.6121
42 139 30.3923
43 139 30.1228
44 139 29.816
45 139 29.4991
46 139 29.1838
47 139 28.864
48 139 28.5052
49 139 28.1166
50 139 27.711
51 139 27.3084
52 139 26.9034
53 139 26.5139
54 139 26.1407
55 139 25.7892
56 139 25.4499
57 139 25.131
58 139 24.8552
59 139 24.6274
60 139 24.4205
61 139 24.2318
62 139 24.0651
63 139 24.0054
64 139 24.0757
65 139 24.2131
66 139 24.4138
67 139 24.6526
68 139 24.923
69 139 25.2054
70 139 25.5044
71 139 25.8372
72 139 26.1852
73 139 26.5462
74 139 26.9012
75 139 27.2281
76 139 27.5237
77 139 27.7675
78 139 27.9517
79 139 28.087
80 139 28.1705
81 139 28.2075
82 139 28.1703
83 139 28.032
84 139 27.7646
85 139 27.3141
86 139 26.6616
87 139 25.8035
88 139 24.7976
89 139 23.633
90 139 22.1529
91 139 20.1936
92 139 17.2737
93 139 11.4794
94 139 6.92078
95 139 3.17867
96 139 0.405393
97 139 -30.2219
98 139 -30.2219
99 139 -30.2219
100 139 -30.2219
101 139 -30.2219
102 139 -30.2219
103 139 -30.2219
104 139 -30.2219
105 139 -30.2219
106 139 -30.2219
107 139 -30.2219
108 139 -30.2219
109 139 -30.2219
110 139 -30.2219
111 139 -30.2219
112 139 -30.2219
113 139 -30.2219
114 139 -30.2219
115 139 -30.2219
116 139 -30.2219
117 139 -30.2219
118 139 -30.2219
119 139 -30.2219
0 140 -30.2219
1 140 -30.2219
2 140 -30.2219
3 140 -30.2219
4 140 -30.2219
5 140 -30.2219
6 140 -30.2219
7 140 -30.2219
8 140 -30.2219
9 140 -30.2219
10 140 -30.2219
11 140 -30.2219
12 140 -30.2219
13 140 24.2683
14 140 27.7475
15 140 29.4757
16 140 31.0717
17 140 32.8935
18 140 34.7058
19 140 36.2504
20 140 37.3667
21 140 38.0147
22 140 38.2784
23 140 38.2239
24 140 37.9263
25 140 37.4275
26 140 36.7584
27 140 35.9447
28 140 35.0492
29 140 34.2238
30 140 33.4859
31 140 32.7756
32 140 32.1535
33 140 31.7275
34 140 31.4964
35 140 31.3186
36 140 31.1533
37 140 31.0079
38 140 30.8829
39 140 30.777
40 140 30.6547
41 140 30.4681
42 140 30.2211
43 140 29.9274
44 140 29.6094
45 140 29.2777
46 140 28.9444
47 140 28.6079
48 140 28.2359
49 140 27.8208
50 140 27.3874
51 140 26.9549
52 140 26.5242
53 140 26.1152
54 140 25.7348
55 140 25.3778
56 140 25.0516
57 140 24.758
58 140 24.4978
59 140 24.2769
60 140 24.0787
61 140 23.8996
62 140 23.7437
63 140 23.6784
64 140 23.7311
65 140 23.851
66 140 24.0322
67 140 24.2519
68 140 24.5019
69 140 24.7718
70 140 25.0696
71 140 25.3997
72 140 25.7518
73 140 26.1313
74 140 26.5246
75 140 26.9012
76 140 27.2368
77 140 27.5112
78 140 27.7114
79 140 27.8466
80 140 27.9162
81 140 27.9255
82 140 27.8446
83 140 27.6642
84 140 27.3615
85 140 26.8949
86 140 26.2145
87 140 25.3316
88 140 24.308
89 140 23.1519
90 140 21.7582
91 140 19.9648
92 140 17.4472
93 140 13.2158
94 140 9.00692
95 140 5.71398
96 140 3.47743
97 140 0.226726
98 140 -30.2219
99 140 -30.2219
100 140 -30.2219
101 140 -30.2219
102 140 -30.2219
103 140 -30.2219
104 140 -30.2219
105 140 -30.2219
106 140 -30.2219
107 140 -30.2219
108 140 -30.2219
109 140 -30.2219
110 140 -30.2219
111 140 -30.2219
112 140 -30.2219
113 140 -30.2219
114 140 -30.2219
115 140 -30.2219
116 140 -30.2219
117 140 -30.2219
118 140 -30.2219
119 140 -30.2219
0 141 -30.2219
1 141 -30.2219
2 141 -30.2219
3 141 -30.2219
4 141 -30.2219
5 141 -30.2219
6 141 -30.2219
7 141 -30.2219
8 141 -30.2219
9 141 -30.2219
10 141 -30.2219
11 141 -30.2219
12 141 22.086
13 141 26.0504
14 141 28.951
15 141 30.9932
16 141 32.9803
17 141 35.0309
18 141 36.9757
19 141 38.5876
20 141 39.71
21 141 40.2986
22 141 40.4802
23 141 40.3199
24 141 39.8764
25 141 39.2042
26 141 38.3579
27 141 37.3819
28 141 36.3813
29 141 35.5207
30 141 34.7491
31 141 33.9824
32 141 33.271
33 141 32.6865
34 141 32.2221
35 141 31.8174
36 141 31.4677
37 141 31.1768
38 141 30.9359
39 141 30.7452
40 141 30.5576
41 141 30.3265
42 141 30.0473
43 141 29.7427
44 141 29.4231
45 141 29.0853
46 141 28.7404
47 141 28.3826
48 141 28.0001
49 141 27.5673
50 141 27.1126
51 141 26.6624
52 141 26.2218
53 141 25.7994
54 141 25.411
55 141 25.0518
56 141 24.7261
57 141 24.4445
58 141 24.1989
59 141 23.9783
60 141 23.7816
61 141 23.6003
62 141 23.4505
63 141 23.3736
64 141 23.3933
65 141 23.5
66 141 23.6567
67 141 23.8513
68 141 24.0794
69 141 24.3387
70 141 24.6282
71 141 24.9463
72 141 25.2931
73 141 25.6779
74 141 26.0853
75 141 26.4809
76 141 26.8421
77 141 27.1329
78 141 27.3297
79 141 27.4392
80 141 27.4744
81 141 27.4447
82 141 27.3264
83 141 27.1063
84 141 26.7658
85 141 26.2782
86 141 25.6038
87 141 24.7474
88 141 23.7821
89 141 22.711
90 141 21.4455
91 141 19.7465
92 141 17.198
93 141 13.8388
94 141 10.5219
95 141 7.38335
96 141 4.66724
97 141 2.2304
98 141 -0.275008
99 141 -30.2219
100 141 -30.2219
101 141 -30.2219
102 141 -30.2219
103 141 -30.2219
104 141 -30.2219
105 141 -30.2219
106 141 -30.2219
107 141 -30.2219
108 141 -30.2219
109 141 -30.2219
110 141 -30.2219
111 141 -30.2219
112 141 -30.2219
113 141 -30.2219
114 141 -30.2219
115 141 -30.2219
116 141 -30.2219
117 141 -30.2219
118 141 -30.2219
119 141 -30.2219
0 142 -30.2219
1 142 -30.2219
2 142 -30.2219
3 142 -30.2219
4 142 -30.2219
5 142 -30.2219
6 142 -30.2219
7 142 -30.2219
8 142 -30.2219
9 142 -30.2219
10 142 -30.2219
11 142 19.2415
12 142 23.456
13 142 27.006
14 142 30.0018
15 142 32.4644
16 142 34.7637
17 142 36.9547
18 142 38.9485
19 142 40.5527
20 142 41.6554
21 142 42.2336
22 142 42.3945
23 142 42.1825
24 142 41.659
25 142 40.879
26 142 39.9092
27 142 38.8193
28 142 37.7659
29 142 36.8838
30 142 36.0695
31 142 35.2455
32 142 34.4447
33 142 33.7035
34 142 33.0319
35 142 32.4163
36 142 31.8814
37 142 31.4283
38 142 31.0566
39 142 30.758
40 142 30.4911
41 142 30.2016
42 142 29.8886
43 142 29.5689
44 142 29.2471
45 142 28.9105
46 142 28.5584
47 142 28.1857
48 142 27.7887
49 142 27.3543
50 142 26.893
51 142 26.4369
52 142 25.9884
53 142 25.5578
54 142 25.1626
55 142 24.8011
56 142 24.4686
57 142 24.1768
58 142 23.9307
59 142 23.7133
60 142 23.5103
61 142 23.3253
62 142 23.1751
63 142 23.089
64 142 23.0729
65 142 23.147
66 142 23.2792
67 142 23.4479
68 142 23.6502
69 142 23.8961
70 142 24.1681
71 142 24.4745
72 142 24.8169
73 142 25.1936
74 142 25.5954
75 142 25.9943
76 142 26.3572
77 142 26.6454
78 142 26.8309
79 142 26.9056
80 142 26.9014
81 142 26.8278
82 142 26.6802
83 142 26.4396
84 142 26.1015
85 142 25.6314
86 142 25.005
87 142 24.2279
88 142 23.3604
89 142 22.3804
90 142 21.1974
91 142 19.5165
92 142 16.7464
93 142 13.8419
94 142 11.2737
95 142 8.58671
96 142 5.97574
97 142 3.55875
98 142 1.65004
99 142 0.0978764
100 142 -1.71628
101 142 -30.2219
102 142 -30.2219
103 142 -30.2219
104 142 -30.2219
105 142 -30.2219
106 142 -30.2219
107 142 -30.2219
108 142 -30.2219
109 142 -30.2219
110 142 -30.2219
111 142 -30.2219
112 142 -30.2219
113 142 -30.2219
114 142 -30.2219
115 142 -30.2219
116 142 -30.2219
117 142 -30.2219
118 142 -30.2219
119 142 -30.2219
0 143 -30.2219
1 143 -30.2219
2 143 -30.2219
3 143 -30.2219
4 143 -30.2219
5 143 -30.2219
6 143 -30.2219
7 143 -30.2219
8 143 -30.2219
9 143 -30.2219
10 143 15.7521
11 143 19.9939
12 143 23.9626
13 143 27.6203
14 143 30.8422
15 143 33.6331
16 143 36.1806
17 143 38.5082
18 143 40.5191
19 143 42.1001
20 143 43.2026
21 143 43.8139
22 143 43.9864
23 143 43.7773
24 143 43.241
25 143 42.4278
26 143 41.3965
27 143 40.2536
28 143 39.1975
29 143 38.3154
30 143 37.4663
31 143 36.5802
32 143 35.6679
33 143 34.7671
34 143 33.9126
35 143 33.1199
36 143 32.411
37 143 31.7929
38 143 31.2659
39 143 30.8381
40 143 30.465
41 143 30.1003
42 143 29.7519
43 143 29.4138
44 143 29.0826
45 143 28.7428
46 143 28.3824
47 143 28.0074
48 143 27.6046
49 143 27.1697
50 143 26.7118
51 143 26.2568
52 143 25.8075
53 143 25.3723
54 143 24.9638
55 143 24.5908
56 143 24.2509
57 143 23.9474
58 143 23.6892
59 143 23.467
60 143 23.2531
61 143 23.0531
62 143 22.8879
63 143 22.7871
64 143 22.7565
65 143 22.7958
66 143 22.8963
67 143 23.0362
68 143 23.2158
69 143 23.4397
70 143 23.6968
71 143 23.9931
72 143 24.328
73 143 24.6931
74 143 25.0725
75 143 25.4633
76 143 25.818
77 143 26.0861
78 143 26.2466
79 143 26.2829
80 143 26.2333
81 143 26.1234
82 143 25.9482
83 143 25.7105
84 143 25.3994
85 143 24.984
86 143 24.4374
87 143 23.7683
88 143 23.0142
89 143 22.0947
90 143 20.8765
91 143 19.0513
92 143 16.2111
93 143 13.7512
94 143 11.7354
95 143 9.45451
96 143 7.13915
97 143 4.96062
98 143 3.09141
99 143 1.46267
100 143 0.271332
101 143 -1.96728
102 143 -30.2219
103 143 -30.2219
104 143 -30.2219
105 143 -30.2219
106 143 -30.2219
107 143 -30.2219
108 143 -30.2219
109 143 -30.2219
110 143 -30.2219
111 143 -30.2219
112 143 -30.2219
113 143 -30.2219
114 143 -30.2219
115 143 -30.2219
116 143 -30.2219
117 143 -30.2219
118 143 -30.2219
119 143 -30.2219
0 144 -30.2219
1 144 -30.2219
2 144 -30.2219
3 144 -30.2219
4 144 -30.2219
5 144 -30.2219
6 144 -30.2219
7 144 -30.2219
8 144 -30.2219
9 144 11.1692
10 144 16.3135
11 144 20.4127
12 144 24.3824
13 144 28.086
14 144 31.4391
15 144 34.4569
16 144 37.1917
17 144 39.6181
18 144 41.6511
19 144 43.2406
20 144 44.3713
21 144 45.0255
22 144 45.254
23 144 45.0978
24 144 44.6099
25 144 43.826
26 144 42.7919
27 144 41.6738
28 144 40.6696
29 144 39.8165
30 144 38.9327
31 144 37.9623
32 144 36.9359
33 144 35.8942
34 144 34.8785
35 144 33.9193
36 144 33.0441
37 144 32.2648
38 144 31.5836
39 144 31.0081
40 144 30.5106
41 144 30.0625
42 144 29.6565
43 144 29.2823
44 144 28.9347
45 144 28.587
46 144 28.2213
47 144 27.8421
48 144 27.4381
49 144 27.0034
50 144 26.5604
51 144 26.113
52 144 25.6643
53 144 25.2275
54 144 24.8107
55 144 24.4291
56 144 24.0797
57 144 23.7607
58 144 23.4798
59 144 23.2343
60 144 23.0059
61 144 22.7856
62 144 22.5995
63 144 22.4708
64 144 22.4124
65 144 22.4242
66 144 22.4965
67 144 22.6143
68 144 22.7765
69 144 22.979
70 144 23.2189
71 144 23.5054
72 144 23.8267
73 144 24.1727
74 144 24.5277
75 144 24.8881
76 144 25.22
77 144 25.4629
78 144 25.5929
79 144 25.592
80 144 25.4952
81 144 25.3549
82 144 25.168
83 144 24.9467
84 144 24.6765
85 144 24.3338
86 144 23.8775
87 144 23.3192
88 144 22.6597
89 144 21.7758
90 144 20.4572
91 144 18.4326
92 144 15.6781
93 144 13.561
94 144 11.9803
95 144 10.1378
96 144 8.16293
97 144 6.19347
98 144 4.36072
99 144 2.63065
100 144 1.04942
101 144 -0.47683
102 144 -1.46168
103 144 -2.98645
104 144 -30.2219
105 144 -30.2219
106 144 -30.2219
107 144 -30.2219
108 144 -30.2219
109 144 -30.2219
110 144 -30.2219
111 144 -30.2219
112 144 -30.2219
113 144 -30.2219
114 144 -30.2219
115 144 -30.2219
116 144 -30.2219
117 144 -30.2219
118 144 -30.2219
119 144 -30.2219
0 145 -30.2219
1 145 -30.2219
2 145 -30.2219
3 145 -30.2219
4 145 -30.2219
5 145 -30.2219
6 145 -30.2219
7 145 -30.2219
8 145 -30.2219
9 145 10.4183
10 145 16.0847
11 145 20.5135
12 145 24.5978
13 145 28.3523
14 145 31.7914
15 145 34.9539
16 145 37.8099
17 145 40.2895
18 145 42.3554
19 145 43.9834
20 145 45.1513
21 145 45.8726
22 145 46.1908
23 145 46.1388
24 145 45.7482
25 145 45.0474
26 145 44.0906
27 145 43.0703
28 145 42.1586
29 145 41.3306
30 145 40.4062
31 145 39.3631
32 145 38.2387
33 145 37.0804
34 145 35.9225
35 145 34.8071
36 145 33.7746
37 145 32.8295
38 145 31.9925
39 145 31.2677
40 145 30.6395
41 145 30.087
42 145 29.6077
43 145 29.1815
44 145 28.7952
45 145 28.4314
46 145 28.0606
47 145 27.6802
48 145 27.2791
49 145 26.8542
50 145 26.43
51 145 25.9929
52 145 25.5538
53 145 25.123
54 145 24.7074
55 145 24.3173
56 145 23.9585
57 145 23.6197
58 145 23.308
59 145 23.0294
60 145 22.7734
61 145 22.5175
62 145 22.3046
63 145 22.1473
64 145 22.0549
65 145 22.0354
66 145 22.0773
67 145 22.1727
68 145 22.3173
69 145 22.5062
70 145 22.7365
71 145 23.0148
72 145 23.3139
73 145 23.6314
74 145 23.9546
75 145 24.2722
76 145 24.5649
77 145 24.7763
78 145 24.8775
79 145 24.8446
80 145 24.7165
81 145 24.5503
82 145 24.3598
83 145 24.1592
84 145 23.9351
85 145 23.645
86 145 23.2724
87 145 22.8114
88 145 22.2261
89 145 21.3519
90 145 19.9416
91 145 17.752
92 145 15.1419
93 145 13.2577
94 145 12.0602
95 145 10.6186
96 145 9.00613
97 145 7.29588
98 145 5.55182
99 145 3.80657
100 145 2.20137
101 145 0.785977
102 145 -0.29465
103 145 -0.967447
104 145 -3.13564
105 145 -30.2219
106 145 -30.2219
107 145 -30.2219
108 145 -30.2219
109 145 -30.2219
110 145 -30.2219
111 145 -30.2219
112 145 -30.2219
113 145 -30.2219
114 145 -30.2219
115 145 -30.2219
116 145 -30.2219
117 145 -30.2219
118 145 -30.2219
119 145 -30.2219
0 146 -30.2219
1 146 -30.2219
2 146 -30.2219
3 146 -30.2219
4 146 -30.2219
5 146 -30.2219
6 146 -30.2219
7 146 -30.2219
8 146 -30.2219
9 146 9.56881
10 146 15.7504
11 146 20.4648
12 146 24.6452
13 146 28.4657
14 146 31.9686
15 146 35.2033
16 146 38.1003
17 146 40.5913
18 146 42.6639
19 146 44.3249
20 146 45.5478
21 146 46.3633
22 146 46.7999
23 146 46.8871
24 146 46.6358
25 146 46.0669
26 146 45.2595
27 146 44.3846
28 146 43.5818
29 146 42.7815
30 146 41.8414
31 146 40.7575
32 146 39.5616
33 146 38.3103
34 146 37.0369
35 146 35.7882
36 146 34.603
37 146 33.4978
38 146 32.4982
39 146 31.6132
40 146 30.8537
41 146 30.1816
42 146 29.6112
43 146 29.1175
44 146 28.6725
45 146 28.2733
46 146 27.8878
47 146 27.5012
48 146 27.1032
49 146 26.6981
50 146 26.2916
51 146 25.8744
52 146 25.459
53 146 25.0514
54 146 24.6441
55 146 24.249
56 146 23.8779
57 146 23.5173
58 146 23.1736
59 146 22.8549
60 146 22.558
61 146 22.2654
62 146 22.0167
63 146 21.8247
64 146 21.6982
65 146 21.6406
66 146 21.6472
67 146 21.7144
68 146 21.8401
69 146 22.0131
70 146 22.2314
71 146 22.4948
72 146 22.7752
73 146 23.0587
74 146 23.342
75 146 23.6115
76 146 23.8562
77 146 24.0337
78 146 24.1082
79 146 24.0594
80 146 23.9183
81 146 23.7428
82 146 23.5488
83 146 23.3587
84 146 23.1583
85 146 22.9069
86 146 22.6035
87 146 22.2092
88 146 21.6818
89 146 20.8231
90 146 19.4404
91 146 16.9568
92 146 14.5265
93 146 13.0266
94 146 12.0848
95 146 10.9706
96 146 9.68918
97 146 8.24052
98 146 6.65937
99 146 5.00557
100 146 3.40668
101 146 1.98952
102 146 0.739093
103 146 -0.382459
104 146 -1.54975
105 146 -3.34227
106 146 -30.2219
107 146 -30.2219
108 146 -30.2219
109 146 -30.2219
110 146 -30.2219
111 146 -30.2219
112 146 -30.2219
113 146 -30.2219
114 146 -30.2219
115 146 -30.2219
116 146 -30.2219
117 146 -30.2219
118 146 -30.2219
119 146 -30.2219
0 147 -30.2219
1 147 -30.2219
2 147 -30.2219
3 147 -30.2219
4 147 -30.2219
5 147 -30.2219
6 147 -30.2219
7 147 -30.2219
8 147 -30.2219
9 147 8.64437
10 147 15.1437
11 147 20.1707
12 147 24.5124
13 147 28.4179
14 147 31.9694
15 147 35.2358
16 147 38.1268
17 147 40.5879
18 147 42.6292
19 147 44.3099
20 147 45.5984
21 147 46.5257
22 147 47.1106
23 147 47.3503
24 147 47.2549
25 147 46.858
26 147 46.2434
27 147 45.5459
28 147 44.8822
29 147 44.1484
30 147 43.2281
31 147 42.1349
32 147 40.9043
33 147 39.5886
34 147 38.2285
35 147 36.8657
36 147 35.5453
37 147 34.2863
38 147 33.1345
39 147 32.0933
40 147 31.181
41 147 30.3779
42 147 29.6934
43 147 29.1057
44 147 28.5876
45 147 28.1267
46 147 27.7099
47 147 27.3109
48 147 26.9128
49 147 26.5271
50 147 26.1377
51 147 25.7489
52 147 25.3622
53 147 24.9804
54 147 24.5957
55 147 24.2085
56 147 23.828
57 147 23.4493
58 147 23.0746
59 147 22.7154
60 147 22.3703
61 147 22.0461
62 147 21.7529
63 147 21.5217
64 147 21.3532
65 147 21.2486
66 147 21.2206
67 147 21.257
68 147 21.3557
69 147 21.5075
70 147 21.7051
71 147 21.9395
72 147 22.1994
73 147 22.451
74 147 22.6915
75 147 22.9098
76 147 23.1016
77 147 23.2472
78 147 23.3004
79 147 23.2442
80 147 23.1076
81 147 22.9369
82 147 22.755
83 147 22.5627
84 147 22.3501
85 147 22.1081
86 147 21.8359
87 147 21.4851
88 147 21.0233
89 147 20.2402
90 147 18.9852
91 147 16.2467
92 147 13.806
93 147 12.7615
94 147 12.0631
95 147 11.2288
96 147 10.222
97 147 9.01755
98 147 7.6271
99 147 6.11487
100 147 4.58268
101 147 3.11601
102 147 1.74907
103 147 0.497127
104 147 -0.654689
105 147 -1.61747
106 147 -3.4938
107 147 -30.2219
108 147 -30.2219
109 147 -30.2219
110 147 -30.2219
111 147 -30.2219
112 147 -30.2219
113 147 -30.2219
114 147 -30.2219
115 147 -30.2219
116 147 -30.2219
117 147 -30.2219
118 147 -30.2219
119 147 -30.2219
0 148 -30.2219
1 148 -30.2219
2 148 -30.2219
3 148 -30.2219
4 148 -30.2219
5 148 -30.2219
6 148 -30.2219
7 148 -30.2219
8 148 -30.2219
9 148 7.75857
10 148 14.3667
11 148 19.6925
12 148 24.2078
13 148 28.2029
14 148 31.7935
15 148 35.047
16 148 37.8994
17 148 40.2983
18 148 42.2999
19 148 43.985
20 148 45.3419
21 148 46.3826
22 148 47.1186
23 148 47.5224
24 148 47.6007
25 148 47.4058
26 148 47.018
27 148 46.5419
28 148 46.0374
29 148 45.3935
30 148 44.535
31 148 43.4748
32 148 42.2518
33 148 40.9159
34 148 39.503
35 148 38.0568
36 148 36.6234
37 148 35.229
38 148 33.927
39 148 32.729
40 148 31.6466
41 148 30.6981
42 148 29.8803
43 148 29.1721
44 148 28.5579
45 148 28.0181
46 148 27.5454
47 148 27.1182
48 148 26.7133
49 148 26.337
50 148 25.9673
51 148 25.612
52 148 25.2573
53 148 24.8988
54 148 24.5368
55 148 24.1694
56 148 23.794
57 148 23.4034
58 148 23.0051
59 148 22.6077
60 148 22.209
61 148 21.8443
62 148 21.5131
63 148 21.2405
64 148 21.0299
65 148 20.8791
66 148 20.8093
67 148 20.8039
68 148 20.8707
69 148 20.9894
70 148 21.1565
71 148 21.3605
72 148 21.5842
73 148 21.8033
74 148 22.0071
75 148 22.1834
76 148 22.326
77 148 22.4329
78 148 22.4775
79 148 22.423
80 148 22.2944
81 148 22.14
82 148 21.9698
83 148 21.7676
84 148 21.534
85 148 21.2649
86 148 20.9706
87 148 20.6287
88 148 20.2292
89 148 19.5699
90 148 18.4766
91 148 15.5316
92 148 13.0781
93 148 12.4753
94 148 12.0348
95 148 11.4331
96 148 10.6479
97 148 9.64606
98 148 8.44486
99 148 7.08951
100 148 5.64946
101 148 4.19216
102 148 2.78244
103 148 1.4872
104 148 0.380207
105 148 -0.589543
106 148 -1.59557
107 148 -3.52873
108 148 -30.2219
109 148 -30.2219
110 148 -30.2219
111 148 -30.2219
112 148 -30.2219
113 148 -30.2219
114 148 -30.2219
115 148 -30.2219
116 148 -30.2219
117 148 -30.2219
118 148 -30.2219
119 148 -30.2219
0 149 -30.2219
1 149 -30.2219
2 149 -30.2219
3 149 -30.2219
4 149 -30.2219
5 149 -30.2219
6 149 -30.2219
7 149 -30.2219
8 149 -30.2219
9 149 6.95646
10 149 13.5646
11 149 19.0768
12 149 23.7445
13 149 27.8025
14 149 31.403
15 149 34.6262
16 149 37.4141
17 149 39.7345
18 149 41.6971
19 149 43.3816
20 149 44.8081
21 149 45.9586
22 149 46.8314
23 149 47.3982
24 149 47.6631
25 149 47.693
26 149 47.5583
27 149 47.3271
28 149 47.009
29 149 46.4896
30 149 45.735
31 149 44.7526
32 149 43.5852
33 149 42.2741
34 149 40.8467
35 149 39.3504
36 149 37.8279
37 149 36.3193
38 149 34.8702
39 149 33.5164
40 149 32.2643
41 149 31.1528
42 149 30.1807
43 149 29.3325
44 149 28.6001
45 149 27.9666
46 149 27.4158
47 149 26.9419
48 149 26.5186
49 149 26.1364
50 149 25.7857
51 149 25.4581
52 149 25.1328
53 149 24.8022
54 149 24.4633
55 149 24.1111
56 149 23.7448
57 149 23.3515
58 149 22.9375
59 149 22.5092
60 149 22.0806
61 149 21.6736
62 149 21.3072
63 149 20.984
64 149 20.7268
65 149 20.5311
66 149 20.4142
67 149 20.3628
68 149 20.3754
69 149 20.4539
70 149 20.5781
71 149 20.7409
72 149 20.926
73 149 21.1045
74 149 21.2737
75 149 21.4192
76 149 21.5317
77 149 21.606
78 149 21.6331
79 149 21.5908
80 149 21.4857
81 149 21.3557
82 149 21.1917
83 149 20.9757
84 149 20.7233
85 149 20.4303
86 149 20.1151
87 149 19.7769
88 149 19.4248
89 149 18.8824
90 149 17.9429
91 149 14.8926
92 149 12.4834
93 149 12.2408
94 149 11.9935
95 149 11.5679
96 149 10.9403
97 149 10.1198
98 149 9.10634
99 149 7.90978
100 149 6.59229
101 149 5.2078
102 149 3.839
103 149 2.55118
104 149 1.42395
105 149 0.438872
106 149 -0.617069
107 149 -1.70509
108 149 -3.64774
109 149 -30.2219
110 149 -30.2219
111 149 -30.2219
112 149 -30.2219
113 149 -30.2219
114 149 -30.2219
115 149 -30.2219
116 149 -30.2219
117 149 -30.2219
118 149 -30.2219
119 149 -30.2219
0 150 -30.2219
1 150 -30.2219
2 150 -30.2219
3 150 -30.2219
4 150 -30.2219
5 150 -30.2219
6 150 -30.2219
7 150 -30.2219
8 150 -30.2219
9 150 6.31093
10 150 12.742
11 150 18.3173
12 150 23.0913
13 150 27.1984
14 150 30.8016
15 150 33.9654
16 150 36.6696
17 150 38.9169
18 150 40.8398
19 150 42.5253
20 150 44.0116
21 150 45.2682
22 150 46.2614
23 150 46.9791
24 150 47.4407
25 150 47.7115
26 150 47.8481
27 150 47.8737
28 150 47.7673
29 150 47.4217
30 150 46.8184
31 150 45.9687
32 150 44.9027
33 150 43.6429
34 150 42.2365
35 150 40.7224
36 150 39.1361
37 150 37.5347
38 150 35.961
39 150 34.4574
40 150 33.0419
41 150 31.7542
42 150 30.6072
43 150 29.6016
44 150 28.7289
45 150 27.9813
46 150 27.3425
47 150 26.8036
48 150 26.3432
49 150 25.9427
50 150 25.5975
51 150 25.2843
52 150 24.9824
53 150 24.68
54 150 24.3678
55 150 24.0329
56 150 23.6738
57 150 23.2858
58 150 22.8674
59 150 22.4264
60 150 21.9814
61 150 21.5441
62 150 21.1416
63 150 20.7721
64 150 20.4631
65 150 20.2183
66 150 20.0363
67 150 19.9261
68 150 19.8827
69 150 19.9082
70 150 19.9781
71 150 20.088
72 150 20.231
73 150 20.368
74 150 20.5004
75 150 20.6142
76 150 20.6997
77 150 20.7588
78 150 20.778
79 150 20.7546
80 150 20.683
81 150 20.5754
82 150 20.4215
83 150 20.2145
84 150 19.9703
85 150 19.6912
86 150 19.3863
87 150 19.0568
88 150 18.7297
89 150 18.2489
90 150 17.4177
91 150 14.6959
92 150 12.2779
93 150 12.116
94 150 11.9157
95 150 11.5891
96 150 11.0898
97 150 10.4316
98 150 9.60074
99 150 8.58007
100 150 7.41608
101 150 6.15654
102 150 4.87148
103 150 3.62684
104 150 2.46979
105 150 1.39626
106 150 0.287393
107 150 -0.951193
108 150 -2.41676
109 150 -30.2219
110 150 -30.2219
111 150 -30.2219
112 150 -30.2219
113 150 -30.2219
114 150 -30.2219
115 150 -30.2219
116 150 -30.2219
117 150 -30.2219
118 150 -30.2219
119 150 -30.2219
0 151 -30.2219
1 151 -30.2219
2 151 -30.2219
3 151 -30.2219
4 151 -30.2219
5 151 -30.2219
6 151 -30.2219
7 151 -30.2219
8 151 -30.2219
9 151 5.71305
10 151 11.9315
11 151 17.4239
12 151 22.241
13 151 26.3732
14 151 29.9685
15 151 33.0705
16 151 35.6811
17 151 37.8719
18 151 39.7664
19 151 41.462
20 151 42.9813
21 151 44.3168
22 151 45.4206
23 151 46.2834
24 151 46.9435
25 151 47.4577
26 151 47.8679
27 151 48.1655
28 151 48.2937
29 151 48.1595
30 151 47.7448
31 151 47.0741
32 151 46.1473
33 151 44.9907
34 151 43.6454
35 151 42.146
36 151 40.5379
37 151 38.8719
38 151 37.1975
39 151 35.5544
40 151 33.9868
41 151 32.5225
42 151 31.1902
43 151 30.0107
44 151 28.9764
45 151 28.0914
46 151 27.3478
47 151 26.7199
48 151 26.2026
49 151 25.7652
50 151 25.4058
51 151 25.0936
52 151 24.8067
53 151 24.5294
54 151 24.2423
55 151 23.9296
56 151 23.5862
57 151 23.2059
58 151 22.7969
59 151 22.3615
60 151 21.9089
61 151 21.4548
62 151 21.0143
63 151 20.6069
64 151 20.2434
65 151 19.9361
66 151 19.6853
67 151 19.5093
68 151 19.4044
69 151 19.3617
70 151 19.3674
71 151 19.4166
72 151 19.4993
73 151 19.5944
74 151 19.684
75 151 19.7687
76 151 19.8398
77 151 19.8964
78 151 19.9249
79 151 19.9284
80 151 19.8971
81 151 19.8294
82 151 19.7138
83 151 19.5537
84 151 19.3483
85 151 19.1051
86 151 18.8191
87 151 18.4913
88 151 18.1289
89 151 17.5753
90 151 16.6129
91 151 14.5741
92 151 12.4986
93 151 12.0949
94 151 11.8189
95 151 11.5207
96 151 11.1277
97 151 10.6062
98 151 9.93934
99 151 9.10669
100 151 8.11537
101 151 7.01392
102 151 5.84937
103 151 4.66611
104 151 3.50159
105 151 2.359
106 151 1.15207
107 151 -0.212521
108 151 -1.76154
109 151 -30.2219
110 151 -30.2219
111 151 -30.2219
112 151 -30.2219
113 151 -30.2219
114 151 -30.2219
115 151 -30.2219
116 151 -30.2219
117 151 -30.2219
118 151 -30.2219
119 151 -30.2219
0 152 -30.2219
1 152 -30.2219
2 152 -30.2219
3 152 -30.2219
4 152 -30.2219
5 152 -30.2219
6 152 -30.2219
7 152 -30.2219
8 152 -30.2219
9 152 5.0824
10 152 11.0805
11 152 16.4006
12 152 21.2341
13 152 25.37
14 152 28.9321
15 152 31.964
16 152 34.4855
17 152 36.6251
18 152 38.5064
19 152 40.2104
20 152 41.7515
21 152 43.1268
22 152 44.3139
23 152 45.3136
24 152 46.168
25 152 46.931
26 152 47.6031
27 152 48.1676
28 152 48.5507
29 152 48.661
30 152 48.4689
31 152 48.0051
32 152 47.256
33 152 46.2497
34 152 45.0104
35 152 43.5793
36 152 41.9951
37 152 40.3032
38 152 38.5537
39 152 36.798
40 152 35.0873
41 152 33.463
42 152 31.948
43 152 30.5839
44 152 29.375
45 152 28.332
46 152 27.4543
47 152 26.7164
48 152 26.1139
49 152 25.6179
50 152 25.2225
51 152 24.8955
52 152 24.6119
53 152 24.3485
54 152 24.0814
55 152 23.7896
56 152 23.4642
57 152 23.1013
58 152 22.7033
59 152 22.2811
60 152 21.8366
61 152 21.3777
62 152 20.9236
63 152 20.4853
64 152 20.0732
65 152 19.7037
66 152 19.3889
67 152 19.1436
68 152 18.9583
69 152 18.8315
70 152 18.7549
71 152 18.7369
72 152 18.7592
73 152 18.7973
74 152 18.8488
75 152 18.9073
76 152 18.9706
77 152 19.0339
78 152 19.0794
79 152 19.119
80 152 19.1304
81 152 19.1105
82 152 19.0488
83 152 18.9324
84 152 18.7767
85 152 18.5778
86 152 18.3163
87 152 17.9793
88 152 17.5466
89 152 16.9271
90 152 15.9473
91 152 14.3623
92 152 12.6665
93 152 11.9742
94 152 11.6934
95 152 11.4112
96 152 11.0854
97 152 10.6788
98 152 10.1586
99 152 9.49596
100 152 8.68622
101 152 7.75288
102 152 6.72758
103 152 5.63735
104 152 4.50545
105 152 3.33039
106 152 2.05544
107 152 0.592801
108 152 -1.17087
109 152 -30.2219
110 152 -30.2219
111 152 -30.2219
112 152 -30.2219
113 152 -30.2219
114 152 -30.2219
115 152 -30.2219
116 152 -30.2219
117 152 -30.2219
118 152 -30.2219
119 152 -30.2219
0 153 -30.2219
1 153 -30.2219
2 153 -30.2219
3 153 -30.2219
4 153 -30.2219
5 153 -30.2219
6 153 -30.2219
7 153 -30.2219
8 153 -30.2219
9 153 4.63137
10 153 10.1218
11 153 15.2408
12 153 20.068
13 153 24.2134
14 153 27.7414
15 153 30.6842
16 153 33.1279
17 153 35.2226
18 153 37.0753
19 153 38.7657
20 153 40.322
21 153 41.7266
22 153 42.9712
23 153 44.0896
24 153 45.1258
25 153 46.1093
26 153 47.0259
27 153 47.8544
28 153 48.5063
29 153 48.879
30 153 48.9494
31 153 48.7229
32 153 48.1973
33 153 47.3858
34 153 46.3011
35 153 44.9791
36 153 43.4575
37 153 41.7818
38 153 39.9984
39 153 38.1701
40 153 36.3347
41 153 34.5629
42 153 32.8813
43 153 31.3323
44 153 29.9415
45 153 28.7271
46 153 27.6885
47 153 26.8207
48 153 26.1045
49 153 25.5229
50 153 25.0648
51 153 24.6994
52 153 24.3954
53 153 24.1269
54 153 23.8689
55 153 23.5956
56 153 23.2939
57 153 22.9594
58 153 22.5887
59 153 22.1869
60 153 21.76
61 153 21.3106
62 153 20.8545
63 153 20.3995
64 153 19.95
65 153 19.5287
66 153 19.1569
67 153 18.8343
68 153 18.5594
69 153 18.3429
70 153 18.1796
71 153 18.0784
72 153 18.0294
73 153 18.0089
74 153 18.0229
75 153 18.0632
76 153 18.1189
77 153 18.1849
78 153 18.2492
79 153 18.3088
80 153 18.3544
81 153 18.3597
82 153 18.3361
83 153 18.263
84 153 18.1471
85 153 17.9769
86 153 17.7243
87 153 17.3687
88 153 16.8937
89 153 16.2523
90 153 15.3546
91 153 14.1095
92 153 12.8098
93 153 11.9859
94 153 11.6241
95 153 11.3171
96 153 11.0184
97 153 10.6842
98 153 10.2803
99 153 9.76501
100 153 9.12525
101 153 8.37349
102 153 7.5034
103 153 6.5357
104 153 5.50616
105 153 4.41939
106 153 3.26211
107 153 1.95216
108 153 0.405719
109 153 -3.47984
110 153 -30.2219
111 153 -30.2219
112 153 -30.2219
113 153 -30.2219
114 153 -30.2219
115 153 -30.2219
116 153 -30.2219
117 153 -30.2219
118 153 -30.2219
119 153 -30.2219
0 154 -30.2219
1 154 -30.2219
2 154 -30.2219
3 154 -30.2219
4 154 -30.2219
5 154 -30.2219
6 154 -30.2219
7 154 -30.2219
8 154 -30.2219
9 154 4.34317
10 154 9.11742
11 154 13.9318
12 154 18.7495
13 154 22.9423
14 154 26.4217
15 154 29.279
16 154 31.6473
17 154 33.6854
18 154 35.4833
19 154 37.1387
20 154 38.6847
21 154 40.1164
22 154 41.4199
23 154 42.6362
24 154 43.8204
25 154 44.9901
26 154 46.1297
27 154 47.2169
28 154 48.141
29 154 48.7962
30 154 49.1604
31 154 49.2027
32 154 48.9353
33 154 48.355
34 154 47.4716
35 154 46.3081
36 154 44.9
37 154 43.284
38 154 41.5103
39 154 39.6451
40 154 37.7274
41 154 35.8273
42 154 33.9892
43 154 32.2617
44 154 30.6886
45 154 29.2878
46 154 28.0718
47 154 27.0485
48 154 26.1914
49 154 25.4916
50 154 24.9406
51 154 24.5084
52 154 24.1594
53 154 23.8664
54 154 23.6074
55 154 23.3489
56 154 23.0722
57 154 22.7716
58 154 22.4372
59 154 22.0703
60 154 21.6749
61 154 21.2497
62 154 20.7965
63 154 20.3288
64 154 19.8558
65 154 19.3992
66 154 18.9675
67 154 18.5672
68 154 18.2097
69 154 17.9035
70 154 17.6607
71 154 17.4779
72 154 17.3441
73 154 17.2672
74 154 17.2353
75 154 17.2433
76 154 17.288
77 154 17.3471
78 154 17.4218
79 154 17.4858
80 154 17.5443
81 154 17.5695
82 154 17.5627
83 154 17.5177
84 154 17.4179
85 154 17.2634
86 154 17.0006
87 154 16.6243
88 154 16.1409
89 154 15.5311
90 154 14.7719
91 154 13.8264
92 154 12.822
93 154 12.0502
94 154 11.5961
95 154 11.2544
96 154 10.9622
97 154 10.6744
98 154 10.3554
99 154 9.95973
100 154 9.47192
101 154 8.88893
102 154 8.20132
103 154 7.4068
104 154 6.54867
105 154 5.66361
106 154 4.76642
107 154 3.70168
108 154 2.27053
109 154 -0.349873
110 154 -30.2219
111 154 -30.2219
112 154 -30.2219
113 154 -30.2219
114 154 -30.2219
115 154 -30.2219
116 154 -30.2219
117 154 -30.2219
118 154 -30.2219
119 154 -30.2219
0 155 -30.2219
1 155 -30.2219
2 155 -30.2219
3 155 -30.2219
4 155 -30.2219
5 155 -30.2219
6 155 -30.2219
7 155 -30.2219
8 155 -30.2219
9 155 4.29981
10 155 8.28103
11 155 12.7122
12 155 17.4525
13 155 21.6507
14 155 25.0416
15 155 27.7901
16 155 30.0745
17 155 32.024
18 155 33.7422
19 155 35.3447
20 155 36.8669
21 155 38.315
22 155 39.6787
23 155 40.9886
24 155 42.2959
25 155 43.6218
26 155 44.9594
27 155 46.2836
28 155 47.4692
29 155 48.4129
30 155 49.0671
31 155 49.4064
32 155 49.4293
33 155 49.1197
34 155 48.4759
35 155 47.5179
36 155 46.2781
37 155 44.7692
38 155 43.0528
39 155 41.1869
40 155 39.2248
41 155 37.2309
42 155 35.2625
43 155 33.3719
44 155 31.6167
45 155 30.0299
46 155 28.6266
47 155 27.4186
48 155 26.3916
49 155 25.5438
50 155 24.8684
51 155 24.3392
52 155 23.9283
53 155 23.5943
54 155 23.3108
55 155 23.0599
56 155 22.8044
57 155 22.5332
58 155 22.2381
59 155 21.9127
60 155 21.5545
61 155 21.1622
62 155 20.7231
63 155 20.26
64 155 19.7828
65 155 19.2989
66 155 18.8152
67 155 18.3491
68 155 17.9205
69 155 17.539
70 155 17.209
71 155 16.9377
72 155 16.7309
73 155 16.5821
74 155 16.4968
75 155 16.4582
76 155 16.4761
77 155 16.5291
78 155 16.5948
79 155 16.6633
80 155 16.7095
81 155 16.736
82 155 16.732
83 155 16.6779
84 155 16.5775
85 155 16.4151
86 155 16.147
87 155 15.7801
88 155 15.3162
89 155 14.771
90 155 14.172
91 155 13.4847
92 155 12.7413
93 155 12.0897
94 155 11.6076
95 155 11.2423
96 155 10.9416
97 155 10.6793
98 155 10.4235
99 155 10.1236
100 155 9.76334
101 155 9.33917
102 155 8.83661
103 155 8.25754
104 155 7.62745
105 155 6.98181
106 155 6.33128
107 155 5.4347
108 155 3.87806
109 155 2.96644
110 155 -30.2219
111 155 -30.2219
112 155 -30.2219
113 155 -30.2219
114 155 -30.2219
115 155 -30.2219
116 155 -30.2219
117 155 -30.2219
118 155 -30.2219
119 155 -30.2219
0 156 -30.2219
1 156 -30.2219
2 156 -30.2219
3 156 -30.2219
4 156 -30.2219
5 156 -30.2219
6 156 -30.2219
7 156 -30.2219
8 156 -30.2219
9 156 -30.2219
10 156 6.12826
11 156 11.1398
12 156 16.0297
13 156 20.2633
14 156 23.5776
15 156 26.2196
16 156 28.4096
17 156 30.2677
18 156 31.898
19 156 33.4314
20 156 34.9142
21 156 36.3676
22 156 37.7957
23 156 39.2037
24 156 40.6195
25 156 42.0708
26 156 43.574
27 156 45.0919
28 156 46.5147
29 156 47.7267
30 156 48.6695
31 156 49.3132
32 156 49.643
33 156 49.6347
34 156 49.2672
35 156 48.5545
36 156 47.5193
37 156 46.1718
38 156 44.567
39 156 42.7544
40 156 40.7917
41 156 38.7486
42 156 36.6808
43 156 34.6616
44 156 32.7433
45 156 30.9727
46 156 29.37
47 156 27.9651
48 156 26.7487
49 156 25.7321
50 156 24.9024
51 156 24.2469
52 156 23.7388
53 156 23.3356
54 156 23.0054
55 156 22.7333
56 156 22.4906
57 156 22.252
58 156 21.9954
59 156 21.7143
60 156 21.3986
61 156 21.042
62 156 20.6359
63 156 20.195
64 156 19.7175
65 156 19.2114
66 156 18.6969
67 156 18.187
68 156 17.7018
69 156 17.2487
70 156 16.8307
71 156 16.4708
72 156 16.1871
73 156 15.9568
74 156 15.8053
75 156 15.7191
76 156 15.6962
77 156 15.7215
78 156 15.7611
79 156 15.8166
80 156 15.8494
81 156 15.8574
82 156 15.8354
83 156 15.7617
84 156 15.646
85 156 15.4629
86 156 15.196
87 156 14.8569
88 156 14.4505
89 156 14.0091
90 156 13.5544
91 156 13.0798
92 156 12.5707
93 156 12.0781
94 156 11.6442
95 156 11.2833
96 156 10.9784
97 156 10.7277
98 156 10.5131
99 156 10.286
100 156 10.034
101 156 9.75053
102 156 9.42301
103 156 9.04271
104 156 8.60151
105 156 8.07603
106 156 7.37437
107 156 6.09043
108 156 3.40869
109 156 -30.2219
110 156 -30.2219
111 156 -30.2219
112 156 -30.2219
113 156 -30.2219
114 156 -30.2219
115 156 -30.2219
116 156 -30.2219
117 156 -30.2219
118 156 -30.2219
119 156 -30.2219
0 157 -30.2219
1 157 -30.2219
2 157 -30.2219
3 157 -30.2219
4 157 -30.2219
5 157 -30.2219
6 157 -30.2219
7 157 -30.2219
8 157 -30.2219
9 157 -30.2219
10 157 5.48995
11 157 10.0431
12 157 14.6944
13 157 18.829
14 157 22.043
15 157 24.5874
16 157 26.6669
17 157 28.417
18 157 29.9661
19 157 31.4333
20 157 32.8788
21 157 34.3343
22 157 35.8161
23 157 37.3133
24 157 38.8257
25 157 40.3745
26 157 41.9934
27 157 43.6702
28 157 45.304
29 157 46.7665
30 157 47.9855
31 157 48.9204
32 157 49.5542
33 157 49.8533
34 157 49.7895
35 157 49.3591
36 157 48.571
37 157 47.4352
38 157 45.9908
39 157 44.2907
40 157 42.3911
41 157 40.3512
42 157 38.2322
43 157 36.1206
44 157 34.0748
45 157 32.1293
46 157 30.3347
47 157 28.725
48 157 27.3015
49 157 26.0925
50 157 25.0833
51 157 24.2713
52 157 23.6289
53 157 23.1194
54 157 22.7199
55 157 22.4106
56 157 22.1544
57 157 21.9272
58 157 21.7023
59 157 21.4599
60 157 21.1889
61 157 20.8806
62 157 20.5197
63 157 20.1021
64 157 19.6395
65 157 19.1405
66 157 18.6116
67 157 18.076
68 157 17.5443
69 157 17.0247
70 157 16.5302
71 157 16.0872
72 157 15.7199
73 157 15.4102
74 157 15.1758
75 157 15.025
76 157 14.9499
77 157 14.9247
78 157 14.924
79 157 14.9399
80 157 14.9444
81 157 14.929
82 157 14.8793
83 157 14.7827
84 157 14.6464
85 157 14.4505
86 157 14.1931
87 157 13.8932
88 157 13.5695
89 157 13.2408
90 157 12.9257
91 157 12.6228
92 157 12.3011
93 157 11.9588
94 157 11.6163
95 157 11.3126
96 157 11.0392
97 157 10.8119
98 157 10.6289
99 157 10.4552
100 157 10.2898
101 157 10.1238
102 157 9.93959
